ply
format ascii 1.0
element vertex 70
property float x
property float y
property float z
property uchar red
property uchar green
property uchar blue
end_header
0 0 0 0 255 0
  -1.70874 0.00653035   0.990441 0 255 0
    -1.71006 -0.000614192      2.95845 0 255 0
 -0.0109979 -0.00319912     3.94687 0 255 0
    1.70371 -0.00283578     2.96801 0 255 0
   1.70971 0.00266381   0.998883 0 255 0
-0.708035  0.684743   2.55145 255 255 255
-0.457831 -0.388713   1.91547 255 255 255
 0.288735 0.0493079   2.12363 255 255 255
0.389463 0.210245  2.34583 255 255 255
-0.783484  -0.03898    1.3112 255 255 255
-0.558349   0.68582   1.98811 255 255 255
  -0.21949 -0.0300655    2.10551 255 255 255
-0.540343 -0.165401   2.42214 255 255 255
0.759019 -0.65148  2.52477 255 255 255
  -0.14221 -0.0510269    1.88937 255 255 255
-0.479294  0.674813   2.35375 255 255 255
-0.389118 -0.099916    1.7295 255 255 255
0.0353189  0.706047   2.54655 255 255 255
-0.0150054  -0.686941    2.74589 255 255 255
0.346681 0.303384  1.68225 255 255 255
-0.593164   0.22525    2.2592 255 255 255
-0.780964  -0.29019   2.06505 255 255 255
 -0.756669 -0.0478772     1.7274 255 255 255
-0.490003  0.104439   2.61523 255 255 255
0.233027 0.418437  2.18076 255 255 255
0.264932 0.142946  1.99961 255 255 255
0.713151 -0.37805  1.96648 255 255 255
-0.650334 -0.280949    1.8618 255 255 255
-0.60334 0.315726  1.60073 255 255 255
-0.00192533    0.676093     1.26576 255 255 255
 0.496914 -0.201679    2.3721 255 255 255
 -0.088176 -0.0813051    1.22711 255 255 255
 0.130097 0.0793824   1.65403 255 255 255
 0.233206 -0.485396   1.96828 255 255 255
 0.653649 -0.557999   2.70138 255 255 255
  0.42611 -0.574075   2.30517 255 255 255
-0.522807  0.334688   1.85978 255 255 255
 0.752067 -0.300947   1.47348 255 255 255
-0.663168  0.766714   2.08558 255 255 255
-0.0180042  -0.124805    1.85724 255 255 255
-0.756808 -0.744365   2.66938 255 255 255
 0.539027 0.0778599   2.69485 255 255 255
 -0.50967 -0.376952   1.97332 255 255 255
 0.685749 -0.629512   1.87914 255 255 255
-0.410566 -0.768048   1.99835 255 255 255
-0.217912 -0.611627   1.99759 255 255 255
-0.333857  -0.44544   2.71266 255 255 255
0.00103746  -0.733393    2.50779 255 255 255
0.0297274   -0.6118   1.34758 255 255 255
-0.298779  0.432059   1.21926 255 255 255
 0.729653 -0.657605   2.67275 255 255 255
0.695665 0.621662  1.86154 255 255 255
   0.14963 -0.0568384    1.73187 255 255 255
0.0864274 -0.769002   1.29782 255 255 255
-0.126552 -0.635257    1.7349 255 255 255
-0.277061  0.741575   2.39475 255 255 255
-0.450711 -0.592316   1.80173 255 255 255
-0.44472 -0.12502  2.05603 255 255 255
-0.544784  0.275587    2.3132 255 255 255
 0.410026 -0.562706   2.28992 255 255 255
  0.34817 -0.412199   2.01652 255 255 255
-0.132975  0.361124   1.76521 255 255 255
  0.531128 -0.0699432    1.82039 255 255 255
-0.289143  0.125731   1.32582 255 255 255
 0.729212 -0.591609   2.02756 255 255 255
0.452109 -0.25705  2.18039 255 255 255
0.578138 -0.14697  1.28855 255 255 255
-0.382286  -0.34924   1.28527 255 255 255
0.615583  0.62364  1.25042 255 255 255
