ply
format ascii 1.0
element vertex 70
property float x
property float y
property float z
property uchar red
property uchar green
property uchar blue
end_header
0.000541219  0.00452617  0.00824152 0 255 0
-1.70816 0.003129 0.990736 0 255 0
  -1.71226 -0.0013851    2.96267 0 255 0
-0.00770187 -0.00298524      3.9514 0 255 0
    1.70239 -0.00181747     2.96933 0 255 0
   1.70538 0.00132961   0.996857 0 255 0
-0.706691  0.685503   2.55299 255 255 255
-0.457371 -0.389043   1.91499 255 255 255
  0.28844 0.0494358   2.12313 255 255 255
0.389493 0.210411  2.34608 255 255 255
 -0.781844 -0.0395695    1.31108 255 255 255
-0.557098  0.685776   1.98809 255 255 255
 -0.218752 -0.0302112     2.1049 255 255 255
 -0.53921 -0.166011   2.42247 255 255 255
  0.75814 -0.651133   2.52621 255 255 255
 -0.141816 -0.0510411    1.88839 255 255 255
  -0.478 0.675195  2.35444 255 255 255
-0.388383 -0.100054   1.72853 255 255 255
0.0363806  0.706429   2.54751 255 255 255
-0.0141731  -0.687594    2.74707 255 255 255
 0.34542 0.303314  1.68092 255 255 255
-0.591832  0.225084   2.25918 255 255 255
-0.780251 -0.291108   2.06466 255 255 255
 -0.755728 -0.0485143    1.72668 255 255 255
-0.488556  0.104284   2.61614 255 255 255
0.233055 0.418506  2.18056 255 255 255
0.264478 0.143038  1.99882 255 255 255
 0.711214 -0.377704   1.96603 255 255 255
-0.649685 -0.281516   1.86121 255 255 255
-0.601889  0.315228   1.59993 255 255 255
-0.00195148    0.674867     1.26456 255 255 255
 0.496613 -0.201476   2.37254 255 255 255
-0.0879484 -0.0805573    1.22587 255 255 255
 0.129583 0.0795218   1.65263 255 255 255
 0.232544 -0.485037    1.9679 255 255 255
0.653721  -0.5576  2.70306 255 255 255
 0.425586 -0.573894   2.30564 255 255 255
-0.521587  0.334384   1.85904 255 255 255
 0.749264 -0.300244   1.47239 255 255 255
-0.661922  0.766902   2.08601 255 255 255
-0.0179776  -0.124672    1.85624 255 255 255
-0.756522 -0.746206   2.67104 255 255 255
 0.539965 0.0781077   2.69615 255 255 255
-0.509133  -0.37742   1.97289 255 255 255
 0.683836 -0.628971   1.87888 255 255 255
-0.410653 -0.768397    1.9986 255 255 255
-0.217907 -0.611701   1.99747 255 255 255
-0.332873 -0.446273   2.71369 255 255 255
0.00137815  -0.733824    2.50859 255 255 255
0.0290619 -0.610173   1.34754 255 255 255
-0.297259  0.431369   1.21803 255 255 255
 0.729272 -0.657153   2.67453 255 255 255
0.693501 0.621624  1.86112 255 255 255
  0.149083 -0.0565765    1.73063 255 255 255
0.0855733  -0.76696   1.29837 255 255 255
-0.126876 -0.634749    1.7347 255 255 255
-0.275905  0.741953   2.39547 255 255 255
 -0.45063 -0.592437   1.80158 255 255 255
-0.443854 -0.125384   2.05544 255 255 255
-0.543423  0.275528   2.31334 255 255 255
 0.409513 -0.562525   2.29033 255 255 255
 0.347338 -0.411868   2.01613 255 255 255
-0.132474  0.360894   1.76408 255 255 255
  0.529444 -0.0696404    1.81933 255 255 255
-0.288016  0.125696   1.32455 255 255 255
 0.727374 -0.591251   2.02752 255 255 255
 0.451382 -0.256827   2.18028 255 255 255
 0.575283 -0.146128   1.28728 255 255 255
-0.381609 -0.348509   1.28499 255 255 255
0.612357 0.622849  1.24929 255 255 255
