ply
format ascii 1.0
element vertex 70
property float x
property float y
property float z
property uchar red
property uchar green
property uchar blue
end_header
-0.000743098   0.00438066   0.00798472 0 255 0
  -1.70768 0.00326898   0.989619 0 255 0
   -1.71319 -0.00150763     2.96158 0 255 0
-0.00793931 -0.00286021      3.9517 0 255 0
    1.70287 -0.00180599     2.96907 0 255 0
 1.70553 0.001304 0.996374 0 255 0
-0.706907  0.685671   2.55275 255 255 255
-0.457354 -0.389068   1.91484 255 255 255
 0.288573 0.0494467   2.12322 255 255 255
0.389668 0.210455  2.34618 255 255 255
 -0.781702 -0.0395126    1.31063 255 255 255
-0.557129  0.685844   1.98794 255 255 255
 -0.218727 -0.0302059    2.10487 255 255 255
-0.539308 -0.166043   2.42233 255 255 255
 0.758369 -0.651262   2.52628 255 255 255
 -0.141793 -0.0510353    1.88836 255 255 255
-0.478075  0.675327   2.35433 255 255 255
-0.388374 -0.100042   1.72838 255 255 255
0.0364366  0.706599    2.5476 255 255 255
-0.0141884   -0.68773     2.7472 255 255 255
0.345491  0.30336  1.68098 255 255 255
-0.591915  0.225119     2.259 255 255 255
-0.780298 -0.291151    2.0644 255 255 255
  -0.75566 -0.0485067    1.72638 255 255 255
-0.488664  0.104324   2.61604 255 255 255
0.233186 0.418582  2.18064 255 255 255
0.264593 0.143062  1.99889 255 255 255
 0.711399 -0.377788   1.96607 255 255 255
-0.649655  -0.28153   1.86097 255 255 255
-0.601863  0.315245   1.59969 255 255 255
-0.00208763    0.674944     1.26455 255 255 255
0.496805 -0.20151  2.37263 255 255 255
-0.0881881 -0.0805319    1.22578 255 255 255
 0.129584 0.0795394   1.65265 255 255 255
 0.232625 -0.485108   1.96794 255 255 255
 0.653915 -0.557714   2.70316 255 255 255
 0.425731 -0.573998   2.30573 255 255 255
-0.521585  0.334415   1.85888 255 255 255
 0.749333 -0.300335   1.47235 255 255 255
-0.662001  0.766981   2.08582 255 255 255
-0.0179468  -0.124676    1.85624 255 255 255
-0.756785 -0.746406   2.67081 255 255 255
  0.54016 0.0781433   2.69625 255 255 255
-0.509125 -0.377451   1.97273 255 255 255
 0.683977 -0.629103    1.8789 255 255 255
-0.410638 -0.768472   1.99849 255 255 255
-0.217881 -0.611764   1.99743 255 255 255
-0.332954 -0.446366    2.7137 255 255 255
0.00140308   -0.73396    2.50869 255 255 255
0.0289229 -0.610189   1.34745 255 255 255
-0.297447  0.431375    1.2179 255 255 255
 0.729484 -0.657291   2.67462 255 255 255
0.693717 0.621706  1.86116 255 255 255
  0.149108 -0.0565777    1.73066 255 255 255
0.0854233 -0.766994   1.29828 255 255 255
-0.126869 -0.634786   1.73464 255 255 255
-0.275921  0.742112   2.39546 255 255 255
-0.450599 -0.592459   1.80141 255 255 255
-0.443858 -0.125394   2.05532 255 255 255
-0.543504  0.275578   2.31319 255 255 255
 0.409655 -0.562626   2.29043 255 255 255
 0.347451 -0.411936    2.0162 255 255 255
-0.132465  0.360941   1.76406 255 255 255
  0.529577 -0.0696638    1.81939 255 255 255
-0.288159  0.125723   1.32439 255 255 255
 0.727556 -0.591373   2.02756 255 255 255
 0.451548 -0.256873   2.18036 255 255 255
 0.575248 -0.146178   1.28726 255 255 255
-0.381714 -0.348427   1.28473 255 255 255
0.612409 0.622983  1.24926 255 255 255
